ply
        format ascii 1.0
        element vertex 76800
        property float x
        property float y
        property float z
        property uchar red
        property uchar green
        property uchar blue
        property uchar alpha
        end_header
0.1052 0.0231 -0.2390 160 138 125 0
0.1060 0.0231 -0.2390 166 144 130 0
0.1068 0.0231 -0.2390 169 147 133 0
0.1076 0.0231 -0.2390 168 146 132 0
0.1079 0.0230 -0.2380 170 147 131 0
0.1087 0.0230 -0.2380 168 145 129 0
0.1095 0.0230 -0.2380 166 143 127 0
0.1103 0.0230 -0.2380 169 143 128 0
0.1106 0.0229 -0.2370 173 147 130 0
0.1114 0.0229 -0.2370 177 151 134 0
0.1122 0.0229 -0.2370 179 153 136 0
0.1130 0.0229 -0.2370 180 154 137 0
0.1133 0.0228 -0.2360 192 160 137 0
0.1141 0.0228 -0.2360 196 164 141 0
0.1149 0.0228 -0.2360 200 168 145 0
0.1156 0.0228 -0.2360 203 171 148 0
0.1159 0.0227 -0.2350 205 173 150 0
0.1167 0.0227 -0.2350 206 174 151 0
0.1175 0.0227 -0.2350 210 175 153 0
0.1183 0.0227 -0.2350 212 177 155 0
0.1191 0.0227 -0.2350 217 182 160 0
0.1193 0.0226 -0.2340 222 186 164 0
0.1201 0.0226 -0.2340 220 184 162 0
0.1209 0.0226 -0.2340 220 184 162 0
0.1217 0.0226 -0.2340 225 189 167 0
0.1225 0.0226 -0.2340 221 183 162 0
0.1227 0.0225 -0.2330 218 180 159 0
0.1235 0.0225 -0.2330 228 190 169 0
-0.1152 0.0202 -0.2160 111 100 96 0
-0.1150 0.0203 -0.2170 112 101 97 0
-0.1143 0.0203 -0.2170 109 98 94 0
-0.1136 0.0203 -0.2170 99 88 84 0
-0.1128 0.0203 -0.2170 89 78 74 0
-0.1121 0.0203 -0.2170 86 75 71 0
-0.1119 0.0203 -0.2180 93 82 78 0
-0.1112 0.0203 -0.2180 101 90 86 0
-0.1105 0.0203 -0.2180 103 92 88 0
-0.1097 0.0203 -0.2180 106 95 91 0
-0.1090 0.0203 -0.2180 151 140 136 0
-0.1083 0.0203 -0.2180 148 137 133 0
-0.1080 0.0204 -0.2190 103 92 88 0
-0.1073 0.0204 -0.2190 90 79 75 0
-0.1066 0.0204 -0.2190 88 77 73 0
-0.1058 0.0204 -0.2190 83 72 68 0
-0.1051 0.0204 -0.2190 107 79 78 0
-0.1044 0.0204 -0.2190 107 79 78 0
-0.1041 0.0205 -0.2200 96 70 69 0
-0.1034 0.0205 -0.2200 80 59 56 0
-0.1027 0.0205 -0.2200 77 58 54 0
-0.1019 0.0205 -0.2200 82 67 62 0
-0.1017 0.0206 -0.2210 83 70 64 0
-0.1009 0.0206 -0.2210 78 67 61 0
-0.1002 0.0206 -0.2210 87 78 71 0
-0.0994 0.0206 -0.2210 87 78 71 0
-0.0992 0.0207 -0.2220 87 78 69 0
-0.0984 0.0207 -0.2220 90 81 72 0
-0.0977 0.0207 -0.2220 95 86 77 0
-0.0974 0.0208 -0.2230 103 93 84 0
-0.0966 0.0208 -0.2230 109 99 90 0
-0.0959 0.0208 -0.2230 114 101 93 0
-0.0956 0.0209 -0.2240 109 94 89 0
-0.0948 0.0209 -0.2240 116 101 96 0
-0.0941 0.0209 -0.2240 114 98 98 0
-0.0925 0.0207 -0.2220 100 84 85 0
-0.0918 0.0207 -0.2220 97 81 84 0
-0.0910 0.0207 -0.2220 117 100 106 0
-0.0903 0.0207 -0.2220 148 131 139 0
-0.0895 0.0207 -0.2220 169 152 160 0
-0.0888 0.0207 -0.2220 143 126 134 0
-0.0881 0.0207 -0.2220 145 129 132 0
-0.0881 0.0209 -0.2240 134 118 118 0
-0.0881 0.0211 -0.2260 87 72 67 0
-0.0874 0.0211 -0.2260 93 79 70 0
-0.0870 0.0212 -0.2270 84 70 57 0
-0.0863 0.0212 -0.2270 81 68 51 0
-0.0855 0.0212 -0.2270 89 76 59 0
-0.0851 0.0213 -0.2280 89 76 60 0
-0.0844 0.0213 -0.2280 89 73 58 0
-0.0836 0.0213 -0.2280 97 79 65 0
-0.0832 0.0214 -0.2290 106 87 73 0
-0.0828 0.0215 -0.2300 110 86 74 0
-0.0820 0.0215 -0.2300 108 82 69 0
-0.0813 0.0215 -0.2300 100 72 60 0
-0.0809 0.0216 -0.2310 87 59 47 0
-0.0801 0.0216 -0.2310 98 70 58 0
-0.0793 0.0216 -0.2310 101 75 60 0
-0.0785 0.0216 -0.2310 118 97 80 0
-0.0781 0.0217 -0.2320 169 150 133 0
-0.0777 0.0217 -0.2330 222 207 188 0
-0.0769 0.0217 -0.2330 203 192 170 0
-0.0761 0.0217 -0.2330 179 171 148 0
-0.0757 0.0218 -0.2340 140 134 110 0
-0.0749 0.0218 -0.2340 110 104 70 0
-0.0744 0.0219 -0.2350 127 112 83 0
-0.0736 0.0219 -0.2350 131 104 83 0
-0.0732 0.0220 -0.2360 140 108 95 0
-0.0724 0.0220 -0.2360 129 102 93 0
-0.0716 0.0220 -0.2360 110 101 94 0
-0.0711 0.0221 -0.2370 119 131 121 0
-0.0706 0.0222 -0.2380 122 148 137 0
-0.0698 0.0222 -0.2380 97 123 114 0
-0.0693 0.0223 -0.2390 125 138 131 0
-0.0685 0.0223 -0.2390 126 121 118 0
-0.0680 0.0224 -0.2400 114 93 92 0
-0.0672 0.0224 -0.2400 116 88 85 0
-0.0667 0.0225 -0.2410 100 80 71 0
-0.0659 0.0225 -0.2410 75 66 49 0
-0.0653 0.0226 -0.2420 70 69 48 0
-0.0645 0.0226 -0.2420 82 67 48 0
-0.0640 0.0227 -0.2430 94 79 60 0
-0.0634 0.0228 -0.2440 105 90 71 0
-0.0626 0.0228 -0.2440 103 87 71 0
-0.0621 0.0229 -0.2450 96 80 64 0
-0.0615 0.0230 -0.2460 95 79 63 0
-0.0607 0.0230 -0.2460 91 78 61 0
-0.0601 0.0231 -0.2470 83 70 54 0
-0.0595 0.0231 -0.2480 84 71 55 0
-0.0587 0.0231 -0.2480 82 70 54 0
-0.0581 0.0232 -0.2490 81 69 55 0
-0.0575 0.0233 -0.2500 80 68 54 0
-0.0569 0.0234 -0.2510 80 68 54 0
-0.0561 0.0234 -0.2510 81 72 57 0
-0.0554 0.0235 -0.2520 87 78 63 0
-0.0546 0.0235 -0.2520 91 82 67 0
-0.0538 0.0235 -0.2520 90 81 66 0
-0.0529 0.0235 -0.2520 90 81 66 0
-0.0521 0.0235 -0.2520 91 82 67 0
-0.0512 0.0235 -0.2520 91 82 67 0
-0.0502 0.0234 -0.2510 92 83 68 0
-0.0494 0.0234 -0.2510 93 84 69 0
-0.0485 0.0234 -0.2510 94 85 70 0
-0.0477 0.0234 -0.2510 95 86 71 0
-0.0469 0.0234 -0.2510 96 87 72 0
-0.0460 0.0234 -0.2510 96 87 72 0
-0.0452 0.0234 -0.2510 94 85 70 0
-0.0443 0.0234 -0.2510 91 82 67 0
-0.0435 0.0234 -0.2510 93 84 69 0
-0.0427 0.0234 -0.2510 94 85 70 0
-0.0418 0.0234 -0.2510 89 80 65 0
-0.0335 0.0191 -0.2050 80 71 56 0
-0.0328 0.0191 -0.2050 89 75 66 0
-0.0310 0.0185 -0.1980 76 62 53 0
-0.0222 0.0135 -0.1450 81 67 58 0
-0.0217 0.0135 -0.1450 97 83 74 0
-0.0211 0.0134 -0.1440 95 82 73 0
-0.0206 0.0134 -0.1440 88 74 65 0
-0.0202 0.0134 -0.1440 80 66 57 0
-0.0201 0.0137 -0.1470 71 54 46 0
-0.0193 0.0135 -0.1450 52 33 26 0
-0.0185 0.0133 -0.1420 67 47 40 0
-0.0180 0.0133 -0.1420 114 89 84 0
-0.0174 0.0132 -0.1410 158 130 126 0
-0.0169 0.0132 -0.1410 171 140 137 0
-0.0163 0.0131 -0.1400 174 140 138 0
-0.0159 0.0131 -0.1400 183 148 146 0
-0.0153 0.0130 -0.1390 189 151 150 0
-0.0148 0.0130 -0.1390 198 156 142 0
-0.0144 0.0130 -0.1390 203 161 147 0
-0.0138 0.0129 -0.1380 209 167 153 0
-0.0133 0.0129 -0.1380 215 171 158 0
-0.0129 0.0129 -0.1380 218 174 161 0
-0.0124 0.0129 -0.1380 223 177 164 0
-0.0119 0.0128 -0.1370 226 180 167 0
-0.0114 0.0128 -0.1370 228 182 167 0
-0.0110 0.0128 -0.1370 232 184 170 0
-0.0105 0.0128 -0.1370 234 185 171 0
-0.0100 0.0128 -0.1370 235 186 172 0
-0.0095 0.0127 -0.1360 238 189 175 0
-0.0091 0.0127 -0.1360 243 191 178 0
-0.0086 0.0127 -0.1360 245 193 179 0
-0.0082 0.0127 -0.1360 248 196 182 0
-0.0077 0.0127 -0.1360 249 197 183 0
-0.0073 0.0127 -0.1360 255 199 185 0
-0.0068 0.0127 -0.1360 255 199 185 0
-0.0063 0.0127 -0.1360 255 199 185 0
-0.0059 0.0126 -0.1350 255 201 186 0
-0.0054 0.0126 -0.1350 255 201 186 0
-0.0050 0.0126 -0.1350 255 202 187 0
-0.0045 0.0126 -0.1350 255 202 187 0
-0.0041 0.0126 -0.1350 255 203 187 0
-0.0036 0.0126 -0.1350 255 203 187 0
-0.0032 0.0126 -0.1350 255 203 187 0
-0.0027 0.0126 -0.1350 255 204 187 0
-0.0023 0.0126 -0.1350 255 204 187 0
-0.0018 0.0126 -0.1350 255 204 187 0
-0.0014 0.0126 -0.1350 255 204 187 0
-0.0009 0.0126 -0.1350 255 204 187 0
-0.0005 0.0126 -0.1350 255 204 187 0
0.0000 0.0126 -0.1350 253 207 191 0
0.0005 0.0126 -0.1350 254 207 191 0
0.0009 0.0126 -0.1350 254 207 191 0
0.0014 0.0126 -0.1350 255 206 191 0
0.0018 0.0126 -0.1350 255 206 191 0
0.0023 0.0126 -0.1350 255 204 190 0
0.0027 0.0126 -0.1350 255 203 189 0
0.0032 0.0126 -0.1350 254 202 188 0
0.0036 0.0126 -0.1350 253 201 187 0
0.0041 0.0126 -0.1350 251 202 187 0
0.0045 0.0126 -0.1350 251 204 188 0
0.0050 0.0126 -0.1350 252 206 190 0
0.0054 0.0126 -0.1350 252 209 192 0
0.0059 0.0127 -0.1360 254 213 195 0
0.0063 0.0127 -0.1360 254 216 197 0
0.0068 0.0127 -0.1360 255 217 198 0
0.0073 0.0127 -0.1360 255 214 199 0
0.0077 0.0127 -0.1360 255 215 199 0
0.0082 0.0127 -0.1360 255 215 199 0
0.0086 0.0127 -0.1360 255 216 198 0
0.0091 0.0127 -0.1360 255 217 198 0
0.0096 0.0128 -0.1370 255 217 198 0
0.0100 0.0128 -0.1370 254 217 198 0
0.0105 0.0128 -0.1370 254 218 196 0
0.0110 0.0128 -0.1370 253 215 194 0
0.0114 0.0128 -0.1370 254 216 195 0
0.0120 0.0129 -0.1380 255 215 193 0
0.0124 0.0129 -0.1380 255 214 192 0
0.0129 0.0129 -0.1380 255 211 190 0
0.0133 0.0129 -0.1380 254 207 187 0
0.0139 0.0130 -0.1390 251 204 184 0
0.0144 0.0130 -0.1390 251 203 183 0
0.0148 0.0130 -0.1390 255 194 168 0
0.0154 0.0131 -0.1400 255 195 171 0
0.0159 0.0131 -0.1400 253 188 166 0
0.0164 0.0132 -0.1410 251 190 169 0
0.0169 0.0132 -0.1410 248 191 172 0
0.0175 0.0133 -0.1420 229 176 160 0
0.0182 0.0134 -0.1440 129 81 67 0
0.0188 0.0135 -0.1450 104 60 49 0
0.0193 0.0135 -0.1450 143 105 94 0
0.0197 0.0134 -0.1440 129 95 85 0
0.0204 0.0136 -0.1460 101 68 59 0
0.0221 0.0144 -0.1540 61 33 22 0
0.0283 0.0180 -0.1930 58 31 20 0
0.0299 0.0186 -0.1990 103 79 67 0
0.0273 0.0166 -0.1780 130 106 94 0
0.0342 0.0203 -0.2180 108 86 73 0
0.0402 0.0234 -0.2510 75 57 45 0
0.0408 0.0233 -0.2500 74 56 44 0
0.0417 0.0233 -0.2500 62 44 32 0
0.0425 0.0233 -0.2500 59 41 29 0
0.0433 0.0233 -0.2500 71 53 41 0
0.0443 0.0234 -0.2510 70 52 40 0
0.0452 0.0234 -0.2510 64 46 34 0
0.0460 0.0234 -0.2510 71 53 41 0
0.0469 0.0234 -0.2510 69 51 39 0
0.0477 0.0234 -0.2510 72 54 42 0
0.0485 0.0234 -0.2510 72 54 42 0
0.0494 0.0234 -0.2510 70 52 40 0
0.0504 0.0235 -0.2520 76 58 46 0
0.0512 0.0235 -0.2520 86 68 56 0
0.0521 0.0235 -0.2520 87 69 57 0
0.0529 0.0235 -0.2520 81 63 51 0
0.0538 0.0235 -0.2520 78 70 59 0
0.0546 0.0235 -0.2520 80 72 61 0
0.0554 0.0235 -0.2520 82 74 63 0
0.0563 0.0235 -0.2520 83 75 64 0
0.0571 0.0235 -0.2520 82 74 63 0
0.0580 0.0235 -0.2520 81 73 62 0
0.0588 0.0235 -0.2520 81 73 62 0
0.0596 0.0235 -0.2520 82 74 63 0
0.0607 0.0236 -0.2530 80 72 61 0
0.0616 0.0236 -0.2530 80 72 61 0
0.0624 0.0236 -0.2530 80 72 61 0
0.0633 0.0236 -0.2530 80 72 61 0
0.0641 0.0236 -0.2530 79 71 60 0
0.0649 0.0236 -0.2530 79 71 60 0
0.0658 0.0236 -0.2530 79 71 60 0
0.0666 0.0236 -0.2530 79 71 60 0
0.0675 0.0236 -0.2530 79 72 56 0
0.0683 0.0236 -0.2530 78 71 55 0
0.0694 0.0237 -0.2540 76 69 53 0
0.0703 0.0237 -0.2540 79 71 58 0
0.0711 0.0237 -0.2540 78 70 57 0
0.0720 0.0237 -0.2540 64 56 45 0
0.0725 0.0236 -0.2530 63 55 44 0
0.0731 0.0235 -0.2520 81 72 63 0
0.0739 0.0235 -0.2520 87 78 71 0
0.0748 0.0235 -0.2520 77 68 61 0
0.0762 0.0237 -0.2540 72 63 58 0
0.0767 0.0236 -0.2530 72 62 60 0
0.0782 0.0238 -0.2550 60 50 48 0
0.0787 0.0237 -0.2540 40 30 29 0
0.0796 0.0237 -0.2540 31 21 20 0
0.0801 0.0236 -0.2530 36 26 25 0
0.0810 0.0236 -0.2530 47 43 31 0
0.0815 0.0235 -0.2520 55 51 40 0
0.0823 0.0235 -0.2520 69 65 56 0
0.0828 0.0234 -0.2510 84 77 71 0
0.0837 0.0234 -0.2510 96 86 84 0
0.0842 0.0233 -0.2500 106 95 93 0
0.0850 0.0233 -0.2500 115 101 101 0
0.0858 0.0233 -0.2500 120 104 104 0
0.0863 0.0232 -0.2490 131 113 111 0
0.0872 0.0232 -0.2490 126 107 101 0
0.0876 0.0231 -0.2480 134 114 105 0
0.0885 0.0231 -0.2480 141 119 105 0
0.0882 0.0229 -0.2450 129 106 88 0
0.0828 0.0213 -0.2280 120 96 72 0
0.0821 0.0209 -0.2240 114 90 64 0
0.0829 0.0209 -0.2240 108 82 55 0
0.0836 0.0209 -0.2240 131 96 58 0
0.0844 0.0209 -0.2240 112 77 39 0
0.0851 0.0209 -0.2240 114 80 43 0
0.0859 0.0209 -0.2240 119 85 50 0
0.0866 0.0209 -0.2240 121 86 54 0
0.0874 0.0209 -0.2240 113 78 48 0
0.0916 0.0217 -0.2330 122 88 60 0
0.0964 0.0227 -0.2430 148 114 87 0
0.0972 0.0227 -0.2430 158 126 101 0
0.0980 0.0227 -0.2430 162 130 109 0
0.0984 0.0226 -0.2420 168 137 117 0
0.0992 0.0226 -0.2420 173 142 124 0
0.1000 0.0226 -0.2420 176 144 129 0
0.1008 0.0226 -0.2420 176 144 131 0
0.1012 0.0225 -0.2410 172 143 129 0
0.1020 0.0225 -0.2410 170 141 127 0
0.1028 0.0225 -0.2410 152 130 116 0
0.1032 0.0224 -0.2400 155 133 119 0
0.1040 0.0224 -0.2400 156 134 120 0
0.1048 0.0224 -0.2400 155 133 119 0
0.1052 0.0223 -0.2390 159 137 123 0
0.1060 0.0223 -0.2390 168 145 129 0
0.1068 0.0223 -0.2390 172 149 133 0
0.1076 0.0223 -0.2390 172 149 133 0
0.1079 0.0222 -0.2380 179 156 140 0
0.1087 0.0222 -0.2380 176 153 137 0
0.1095 0.0222 -0.2380 175 149 132 0
0.1103 0.0222 -0.2380 175 149 132 0
0.1106 0.0221 -0.2370 179 153 136 0
0.1114 0.0221 -0.2370 184 158 141 0
0.1122 0.0221 -0.2370 188 162 145 0
0.1130 0.0221 -0.2370 189 163 146 0
0.1133 0.0220 -0.2360 196 164 141 0
0.1141 0.0220 -0.2360 199 167 144 0
0.1149 0.0220 -0.2360 203 171 148 0
0.1156 0.0220 -0.2360 204 172 149 0
0.1159 0.0219 -0.2350 204 172 149 0
0.1167 0.0219 -0.2350 203 171 148 0
0.1175 0.0219 -0.2350 206 171 149 0
0.1183 0.0219 -0.2350 207 172 150 0
0.1191 0.0219 -0.2350 218 183 161 0
0.1193 0.0218 -0.2340 224 188 166 0
0.1201 0.0218 -0.2340 221 185 163 0
0.1209 0.0218 -0.2340 222 186 164 0
0.1217 0.0218 -0.2340 227 191 169 0
0.1225 0.0218 -0.2340 223 185 164 0
0.1227 0.0217 -0.2330 221 183 162 0
0.1235 0.0217 -0.2330 231 193 172 0
-0.1152 0.0194 -0.2160 151 140 136 0
-0.1150 0.0195 -0.2170 151 140 136 0
-0.1143 0.0195 -0.2170 145 134 130 0
-0.1136 0.0195 -0.2170 131 120 116 0
-0.1128 0.0195 -0.2170 112 101 97 0
-0.1121 0.0195 -0.2170 99 88 84 0
-0.1119 0.0196 -0.2180 94 83 79 0
-0.1112 0.0196 -0.2180 95 84 80 0
-0.1105 0.0196 -0.2180 100 89 85 0
-0.1097 0.0196 -0.2180 101 90 86 0
-0.1090 0.0196 -0.2180 145 134 130 0
-0.1083 0.0196 -0.2180 143 132 128 0
-0.1075 0.0196 -0.2180 102 91 87 0
-0.1073 0.0197 -0.2190 92 81 77 0
-0.1066 0.0197 -0.2190 89 78 74 0
-0.1058 0.0197 -0.2190 82 71 67 0
-0.1051 0.0197 -0.2190 111 81 83 0
-0.1044 0.0197 -0.2190 100 71 73 0
-0.1041 0.0198 -0.2200 85 59 60 0
-0.1034 0.0198 -0.2200 75 51 51 0
-0.1027 0.0198 -0.2200 68 48 47 0
-0.1019 0.0198 -0.2200 61 46 43 0
-0.1017 0.0199 -0.2210 53 39 36 0
-0.1009 0.0199 -0.2210 43 34 27 0
-0.1002 0.0199 -0.2210 56 47 40 0
-0.0994 0.0199 -0.2210 57 50 42 0
-0.0992 0.0200 -0.2220 61 54 46 0
-0.0984 0.0200 -0.2220 71 62 55 0
-0.0977 0.0200 -0.2220 82 73 66 0
-0.0969 0.0200 -0.2220 93 82 76 0
-0.0962 0.0200 -0.2220 100 90 81 0
-0.0959 0.0201 -0.2230 105 92 84 0
-0.0951 0.0201 -0.2230 100 83 76 0
-0.0944 0.0201 -0.2230 107 89 85 0
-0.0941 0.0202 -0.2240 103 85 83 0
-0.0925 0.0200 -0.2220 93 75 75 0
-0.0918 0.0200 -0.2220 97 81 84 0
-0.0910 0.0200 -0.2220 125 108 114 0
-0.0903 0.0200 -0.2220 152 135 143 0
-0.0895 0.0200 -0.2220 164 147 155 0
-0.0888 0.0200 -0.2220 140 123 129 0
-0.0881 0.0200 -0.2220 139 123 126 0
-0.0881 0.0202 -0.2240 124 108 108 0
-0.0881 0.0203 -0.2260 92 77 72 0
-0.0874 0.0203 -0.2260 114 97 87 0
-0.0870 0.0204 -0.2270 106 90 75 0
-0.0863 0.0204 -0.2270 104 88 72 0
-0.0855 0.0204 -0.2270 105 90 71 0
-0.0851 0.0205 -0.2280 100 82 68 0
-0.0844 0.0205 -0.2280 104 85 71 0
-0.0840 0.0206 -0.2290 108 89 75 0
-0.0832 0.0206 -0.2290 116 94 81 0
-0.0824 0.0206 -0.2290 121 97 85 0
-0.0820 0.0207 -0.2300 119 96 82 0
-0.0813 0.0207 -0.2300 111 88 74 0
-0.0809 0.0208 -0.2310 105 82 68 0
-0.0801 0.0208 -0.2310 102 80 66 0
-0.0793 0.0208 -0.2310 93 76 58 0
-0.0785 0.0208 -0.2310 112 101 81 0
-0.0781 0.0209 -0.2320 169 163 141 0
-0.0773 0.0209 -0.2320 203 203 179 0
-0.0769 0.0210 -0.2330 195 199 172 0
-0.0761 0.0210 -0.2330 180 189 160 0
-0.0757 0.0211 -0.2340 141 152 122 0
-0.0749 0.0211 -0.2340 114 106 70 0
-0.0744 0.0211 -0.2350 129 112 84 0
-0.0736 0.0211 -0.2350 136 105 85 0
-0.0732 0.0212 -0.2360 144 108 96 0
-0.0724 0.0212 -0.2360 128 99 93 0
-0.0716 0.0212 -0.2360 105 94 88 0
-0.0711 0.0213 -0.2370 115 128 119 0
-0.0703 0.0213 -0.2370 120 150 140 0
-0.0698 0.0214 -0.2380 114 144 136 0
-0.0690 0.0214 -0.2380 130 145 142 0
-0.0685 0.0215 -0.2390 124 118 118 0
-0.0680 0.0216 -0.2400 114 89 92 0
-0.0672 0.0216 -0.2400 113 81 82 0
-0.0667 0.0217 -0.2410 96 71 64 0
-0.0659 0.0217 -0.2410 79 67 51 0
-0.0653 0.0218 -0.2420 85 84 63 0
-0.0645 0.0218 -0.2420 109 94 75 0
-0.0640 0.0219 -0.2430 99 84 65 0
-0.0634 0.0220 -0.2440 102 87 68 0
-0.0626 0.0220 -0.2440 106 90 74 0
-0.0621 0.0221 -0.2450 98 82 66 0
-0.0615 0.0221 -0.2460 94 78 62 0
-0.0607 0.0221 -0.2460 91 78 61 0
-0.0601 0.0222 -0.2470 83 70 54 0
-0.0595 0.0223 -0.2480 83 70 54 0
-0.0587 0.0223 -0.2480 82 70 54 0
-0.0581 0.0224 -0.2490 81 69 55 0
-0.0575 0.0225 -0.2500 79 67 53 0
-0.0569 0.0226 -0.2510 79 67 53 0
-0.0561 0.0226 -0.2510 81 72 57 0
-0.0554 0.0227 -0.2520 86 77 62 0
-0.0546 0.0227 -0.2520 91 82 67 0
-0.0538 0.0227 -0.2520 90 83 67 0
-0.0529 0.0227 -0.2520 90 83 67 0
-0.0521 0.0227 -0.2520 90 83 67 0
-0.0512 0.0227 -0.2520 90 83 67 0
-0.0502 0.0226 -0.2510 91 84 68 0
-0.0494 0.0226 -0.2510 93 86 70 0
-0.0485 0.0226 -0.2510 94 87 71 0
-0.0477 0.0226 -0.2510 95 88 72 0
-0.0469 0.0226 -0.2510 95 88 72 0
-0.0460 0.0226 -0.2510 96 89 73 0
-0.0452 0.0226 -0.2510 95 88 72 0
-0.0443 0.0226 -0.2510 95 88 72 0
-0.0435 0.0226 -0.2510 98 91 75 0
-0.0427 0.0226 -0.2510 99 92 76 0
-0.0418 0.0226 -0.2510 91 84 68 0
-0.0341 0.0188 -0.2090 80 73 57 0
-0.0366 0.0206 -0.2290 85 70 63 0
-0.0310 0.0178 -0.1980 82 67 60 0
-0.0222 0.0130 -0.1450 92 79 71 0
-0.0217 0.0130 -0.1450 100 87 79 0
-0.0211 0.0130 -0.1440 91 78 70 0
-0.0206 0.0130 -0.1440 79 66 58 0
-0.0202 0.0130 -0.1440 70 55 48 0
-0.0201 0.0132 -0.1470 59 42 35 0
-0.0192 0.0130 -0.1440 52 33 27 0
-0.0186 0.0129 -0.1430 79 58 53 0
-0.0180 0.0128 -0.1420 129 104 100 0
-0.0174 0.0127 -0.1410 163 135 132 0
-0.0169 0.0127 -0.1410 168 137 135 0
-0.0163 0.0126 -0.1400 174 140 139 0
-0.0159 0.0126 -0.1400 185 149 149 0
-0.0153 0.0125 -0.1390 189 150 151 0
-0.0148 0.0125 -0.1390 199 157 143 0
-0.0143 0.0124 -0.1380 205 161 148 0
-0.0138 0.0124 -0.1380 211 167 154 0
-0.0133 0.0124 -0.1380 216 172 159 0
-0.0129 0.0124 -0.1380 219 175 162 0
-0.0123 0.0123 -0.1370 223 177 164 0
-0.0119 0.0123 -0.1370 226 180 167 0
-0.0114 0.0123 -0.1370 228 180 166 0
-0.0110 0.0123 -0.1370 231 183 169 0
-0.0105 0.0123 -0.1370 232 184 170 0
-0.0100 0.0122 -0.1360 234 185 171 0
-0.0095 0.0122 -0.1360 236 187 173 0
-0.0091 0.0122 -0.1360 240 188 175 0
-0.0086 0.0122 -0.1360 243 191 178 0
-0.0082 0.0122 -0.1360 246 194 181 0
-0.0077 0.0122 -0.1360 247 195 182 0
-0.0073 0.0122 -0.1360 255 198 184 0
-0.0068 0.0122 -0.1360 255 198 184 0
-0.0063 0.0122 -0.1350 255 198 184 0
-0.0059 0.0122 -0.1350 255 200 185 0
-0.0054 0.0122 -0.1350 255 200 185 0
-0.0050 0.0122 -0.1350 255 200 185 0
-0.0045 0.0122 -0.1350 255 201 186 0
-0.0041 0.0122 -0.1350 255 202 186 0
-0.0036 0.0122 -0.1350 255 203 187 0
-0.0032 0.0122 -0.1350 255 203 187 0
-0.0027 0.0122 -0.1350 255 204 187 0
-0.0023 0.0122 -0.1350 255 204 187 0
-0.0018 0.0122 -0.1350 255 204 187 0
-0.0014 0.0122 -0.1350 255 204 187 0
-0.0009 0.0122 -0.1350 255 204 187 0
-0.0005 0.0122 -0.1350 255 204 187 0
0.0000 0.0122 -0.1350 252 206 191 0
0.0005 0.0122 -0.1350 254 206 192 0
0.0009 0.0122 -0.1350 254 206 192 0
0.0014 0.0122 -0.1350 255 207 193 0
0.0018 0.0122 -0.1350 255 207 193 0
0.0023 0.0122 -0.1350 255 206 193 0
0.0027 0.0122 -0.1350 255 205 192 0
0.0032 0.0122 -0.1350 255 204 191 0
0.0036 0.0122 -0.1350 255 203 190 0
0.0041 0.0122 -0.1350 253 204 190 0
0.0045 0.0122 -0.1350 252 204 190 0
0.0050 0.0122 -0.1350 253 207 192 0
0.0054 0.0122 -0.1350 253 210 194 0
0.0059 0.0122 -0.1350 254 212 196 0
0.0063 0.0122 -0.1360 254 215 198 0
0.0068 0.0122 -0.1360 255 216 199 0
0.0073 0.0122 -0.1360 255 213 198 0
0.0077 0.0122 -0.1360 255 213 198 0
0.0082 0.0122 -0.1360 255 214 198 0
0.0086 0.0122 -0.1360 255 215 197 0
0.0091 0.0122 -0.1360 255 215 197 0
0.0095 0.0122 -0.1360 254 216 197 0
0.0100 0.0123 -0.1370 254 216 197 0
0.0105 0.0123 -0.1370 253 217 195 0
0.0110 0.0123 -0.1370 252 216 194 0
0.0114 0.0123 -0.1370 254 216 195 0
0.0119 0.0123 -0.1370 255 215 193 0
0.0124 0.0124 -0.1380 255 214 192 0
0.0129 0.0124 -0.1380 254 212 190 0
0.0133 0.0124 -0.1380 254 209 188 0
0.0138 0.0124 -0.1380 252 205 185 0
0.0144 0.0125 -0.1390 251 204 184 0
0.0148 0.0125 -0.1390 255 196 168 0
0.0154 0.0126 -0.1400 255 195 168 0
0.0159 0.0126 -0.1400 251 189 164 0
0.0164 0.0127 -0.1410 249 188 167 0
0.0169 0.0127 -0.1410 251 192 174 0
0.0175 0.0128 -0.1420 237 181 166 0
0.0181 0.0129 -0.1430 161 109 96 0
0.0188 0.0130 -0.1450 107 59 49 0
0.0196 0.0132 -0.1470 134 89 83 0
0.0197 0.0130 -0.1440 132 93 86 0
0.0203 0.0130 -0.1450 117 83 74 0
0.0225 0.0141 -0.1570 92 62 52 0
0.0340 0.0209 -0.2320 76 49 38 0
0.0372 0.0223 -0.2480 76 54 41 0
0.0325 0.0191 -0.2120 95 76 62 0
0.0290 0.0167 -0.1850 114 97 81 0
0.0389 0.0219 -0.2430 97 77 66 0
0.0408 0.0225 -0.2500 93 73 62 0
0.0417 0.0225 -0.2500 65 45 34 0
0.0425 0.0225 -0.2500 57 37 26 0
0.0433 0.0225 -0.2500 86 66 55 0
0.0442 0.0225 -0.2500 95 75 64 0
0.0450 0.0225 -0.2500 76 56 45 0
0.0460 0.0226 -0.2510 67 47 36 0
0.0469 0.0226 -0.2510 62 42 31 0
0.0475 0.0225 -0.2500 88 68 57 0
0.0483 0.0225 -0.2500 95 75 64 0
0.0492 0.0225 -0.2500 73 53 42 0
0.0502 0.0226 -0.2510 59 39 28 0
0.0510 0.0226 -0.2510 76 56 45 0
0.0519 0.0226 -0.2510 98 78 67 0
0.0527 0.0226 -0.2510 107 87 76 0
0.0535 0.0226 -0.2510 78 70 59 0
0.0546 0.0227 -0.2520 76 68 57 0
0.0554 0.0227 -0.2520 75 67 56 0
0.0563 0.0227 -0.2520 76 68 57 0
0.0571 0.0227 -0.2520 79 71 60 0
0.0580 0.0227 -0.2520 82 74 63 0
0.0588 0.0227 -0.2520 82 74 63 0
0.0596 0.0227 -0.2520 82 74 63 0
0.0607 0.0228 -0.2530 79 71 60 0
0.0616 0.0228 -0.2530 79 71 60 0
0.0624 0.0228 -0.2530 79 71 60 0
0.0633 0.0228 -0.2530 79 71 60 0
0.0641 0.0228 -0.2530 79 71 60 0
0.0649 0.0228 -0.2530 79 71 60 0
0.0658 0.0228 -0.2530 79 71 60 0
0.0666 0.0228 -0.2530 79 71 60 0
0.0675 0.0228 -0.2530 78 71 53 0
0.0683 0.0228 -0.2530 78 71 55 0
0.0694 0.0229 -0.2540 75 68 52 0
0.0703 0.0229 -0.2540 78 71 55 0
0.0711 0.0229 -0.2540 78 70 57 0
0.0720 0.0229 -0.2540 64 56 43 0
0.0725 0.0228 -0.2530 62 54 43 0
0.0731 0.0227 -0.2520 81 72 63 0
0.0739 0.0227 -0.2520 90 81 74 0
0.0748 0.0227 -0.2520 78 69 64 0
0.0762 0.0229 -0.2540 72 63 58 0
0.0767 0.0228 -0.2530 71 61 59 0
0.0782 0.0229 -0.2550 61 51 49 0
0.0787 0.0229 -0.2540 50 40 39 0
0.0796 0.0229 -0.2540 54 44 43 0
0.0801 0.0228 -0.2530 69 59 58 0
0.0810 0.0228 -0.2530 87 80 62 0
0.0815 0.0227 -0.2520 93 86 70 0
0.0823 0.0227 -0.2520 102 94 81 0
0.0828 0.0226 -0.2510 110 100 90 0
0.0837 0.0226 -0.2510 117 104 96 0
0.0842 0.0225 -0.2500 123 106 99 0
0.0850 0.0225 -0.2500 126 107 101 0
0.0858 0.0225 -0.2500 129 108 103 0
0.0863 0.0224 -0.2490 128 103 96 0
0.0872 0.0224 -0.2490 131 104 93 0
0.0876 0.0223 -0.2480 139 112 95 0
0.0885 0.0223 -0.2480 139 108 87 0
0.0875 0.0219 -0.2430 125 94 66 0
0.0825 0.0204 -0.2270 129 96 65 0
0.0821 0.0202 -0.2240 145 112 77 0
0.0829 0.0202 -0.2240 153 121 83 0
0.0836 0.0202 -0.2240 177 143 95 0
0.0844 0.0202 -0.2240 174 140 94 0
0.0851 0.0202 -0.2240 168 136 89 0
0.0859 0.0202 -0.2240 173 140 95 0
0.0866 0.0202 -0.2240 177 144 103 0
0.0874 0.0202 -0.2240 149 117 78 0
0.0889 0.0203 -0.2260 152 122 86 0
0.0940 0.0213 -0.2370 140 110 76 0
0.0972 0.0219 -0.2430 155 126 96 0
0.0980 0.0219 -0.2430 156 129 102 0
0.0984 0.0218 -0.2420 160 132 110 0
0.0992 0.0218 -0.2420 163 136 115 0
0.1000 0.0218 -0.2420 164 137 120 0
0.1004 0.0217 -0.2410 162 136 121 0
0.1012 0.0217 -0.2410 160 134 119 0
0.1020 0.0217 -0.2410 158 132 119 0
0.1028 0.0217 -0.2410 156 130 113 0
0.1032 0.0216 -0.2400 160 134 117 0
0.1040 0.0216 -0.2400 163 137 120 0
0.1048 0.0216 -0.2400 164 138 121 0
0.1052 0.0215 -0.2390 171 145 128 0
0.1060 0.0215 -0.2390 181 155 138 0
0.1068 0.0215 -0.2390 188 162 145 0
0.1076 0.0215 -0.2390 189 163 146 0
0.1079 0.0214 -0.2380 191 166 146 0
0.1087 0.0214 -0.2380 187 160 141 0
0.1095 0.0214 -0.2380 182 155 136 0
0.1103 0.0214 -0.2380 180 153 134 0
0.1106 0.0213 -0.2370 181 154 135 0
0.1114 0.0213 -0.2370 185 158 139 0
0.1122 0.0213 -0.2370 188 161 142 0
0.1130 0.0213 -0.2370 190 163 144 0
0.1133 0.0212 -0.2360 194 162 139 0
0.1141 0.0212 -0.2360 197 165 142 0
0.1149 0.0212 -0.2360 201 169 146 0
0.1156 0.0212 -0.2360 203 171 148 0
0.1159 0.0211 -0.2350 203 171 148 0
0.1167 0.0211 -0.2350 202 170 147 0
0.1175 0.0211 -0.2350 205 170 148 0
0.1183 0.0211 -0.2350 206 171 149 0
0.1191 0.0211 -0.2350 220 185 163 0
0.1193 0.0211 -0.2340 225 189 167 0
0.1201 0.0211 -0.2340 222 186 164 0
0.1209 0.0211 -0.2340 222 186 164 0
0.1217 0.0211 -0.2340 226 190 168 0
0.1225 0.0211 -0.2340 221 183 162 0
0.1227 0.0210 -0.2330 218 180 159 0
0.1235 0.0210 -0.2330 228 190 169 0
-0.1152 0.0187 -0.2160 171 160 156 0
-0.1150 0.0188 -0.2170 176 165 161 0
-0.1143 0.0188 -0.2170 180 169 165 0
-0.1136 0.0188 -0.2170 178 167 163 0
-0.1128 0.0188 -0.2170 168 157 153 0
-0.1121 0.0188 -0.2170 155 144 140 0
-0.1119 0.0189 -0.2180 144 133 129 0
-0.1112 0.0189 -0.2180 139 128 124 0
-0.1105 0.0189 -0.2180 129 118 114 0
-0.1097 0.0189 -0.2180 121 110 106 0
-0.1090 0.0189 -0.2180 152 141 137 0
-0.1083 0.0189 -0.2180 143 132 128 0
-0.1075 0.0189 -0.2180 101 90 86 0
-0.1073 0.0190 -0.2190 92 81 77 0
-0.1066 0.0190 -0.2190 90 79 75 0
-0.1058 0.0190 -0.2190 83 72 68 0
-0.1051 0.0190 -0.2190 115 84 89 0
-0.1044 0.0190 -0.2190 102 71 76 0
-0.1041 0.0191 -0.2200 95 69 72 0
-0.1034 0.0191 -0.2200 104 79 82 0
-0.1027 0.0191 -0.2200 104 84 83 0
-0.1019 0.0191 -0.2200 89 74 71 0
-0.1017 0.0192 -0.2210 72 58 55 0
-0.1009 0.0192 -0.2210 60 51 46 0
-0.1002 0.0192 -0.2210 48 41 35 0
-0.0994 0.0192 -0.2210 44 37 29 0
-0.0992 0.0192 -0.2220 42 35 27 0
-0.0984 0.0192 -0.2220 47 38 31 0
-0.0977 0.0192 -0.2220 55 46 39 0
-0.0969 0.0192 -0.2220 67 56 50 0
-0.0966 0.0193 -0.2230 75 64 58 0
-0.0959 0.0193 -0.2230 81 68 62 0
-0.0951 0.0193 -0.2230 104 85 78 0
-0.0944 0.0193 -0.2230 100 81 75 0
-0.0937 0.0193 -0.2230 87 69 65 0
-0.0925 0.0192 -0.2220 84 66 66 0
-0.0918 0.0192 -0.2220 107 88 90 0
-0.0910 0.0192 -0.2220 136 119 125 0
-0.0903 0.0192 -0.2220 143 126 134 0
-0.0895 0.0192 -0.2220 131 114 122 0
-0.0888 0.0192 -0.2220 131 114 120 0
-0.0881 0.0192 -0.2220 150 134 137 0
-0.0881 0.0194 -0.2240 135 119 119 0
-0.0885 0.0197 -0.2270 93 76 69 0
-0.0878 0.0197 -0.2270 100 83 73 0
-0.0870 0.0197 -0.2270 92 76 61 0
-0.0863 0.0197 -0.2270 100 83 65 0
-0.0855 0.0197 -0.2270 97 80 60 0
-0.0851 0.0198 -0.2280 115 93 80 0
-0.0847 0.0198 -0.2290 122 98 86 0
-0.0840 0.0198 -0.2290 123 99 87 0
-0.0832 0.0198 -0.2290 125 101 89 0
-0.0828 0.0199 -0.2300 131 107 95 0
-0.0820 0.0199 -0.2300 128 105 91 0
-0.0813 0.0199 -0.2300 122 100 86 0
-0.0805 0.0199 -0.2300 122 103 88 0
-0.0801 0.0200 -0.2310 111 95 79 0
-0.0793 0.0200 -0.2310 87 79 58 0
-0.0785 0.0200 -0.2310 108 106 83 0
-0.0781 0.0201 -0.2320 165 171 145 0
-0.0773 0.0201 -0.2320 176 189 161 0
-0.0769 0.0202 -0.2330 175 194 162 0
-0.0761 0.0202 -0.2330 174 198 164 0
-0.0757 0.0203 -0.2340 134 160 125 0
-0.0749 0.0203 -0.2340 117 107 72 0
-0.0744 0.0204 -0.2350 132 111 82 0
-0.0736 0.0204 -0.2350 139 104 85 0
-0.0732 0.0205 -0.2360 150 107 98 0
-0.0724 0.0205 -0.2360 133 100 95 0
-0.0716 0.0205 -0.2360 104 90 87 0
-0.0711 0.0205 -0.2370 106 119 112 0
-0.0703 0.0205 -0.2370 107 137 129 0
-0.0698 0.0206 -0.2380 114 145 139 0
-0.0690 0.0206 -0.2380 126 142 139 0
-0.0685 0.0207 -0.2390 124 115 118 0
-0.0680 0.0208 -0.2400 121 92 97 0
-0.0672 0.0208 -0.2400 119 85 86 0
-0.0667 0.0209 -0.2410 101 74 67 0
-0.0659 0.0209 -0.2410 99 86 70 0
-0.0653 0.0210 -0.2420 127 125 104 0
-0.0645 0.0210 -0.2420 147 132 113 0
-0.0640 0.0211 -0.2430 112 97 78 0
-0.0634 0.0211 -0.2440 101 86 67 0
-0.0626 0.0211 -0.2440 107 91 75 0
-0.0621 0.0212 -0.2450 99 83 67 0
-0.0615 0.0213 -0.2460 93 77 61 0
-0.0607 0.0213 -0.2460 91 78 61 0
-0.0601 0.0214 -0.2470 85 72 56 0
-0.0595 0.0215 -0.2480 83 70 54 0
-0.0587 0.0215 -0.2480 82 70 54 0
-0.0581 0.0216 -0.2490 80 68 54 0
-0.0575 0.0217 -0.2500 79 67 53 0
-0.0569 0.0218 -0.2510 79 67 53 0
-0.0561 0.0218 -0.2510 80 71 56 0
-0.0554 0.0218 -0.2520 86 77 62 0
-0.0546 0.0218 -0.2520 91 82 67 0
-0.0538 0.0218 -0.2520 90 83 67 0
-0.0529 0.0218 -0.2520 90 83 67 0
-0.0521 0.0218 -0.2520 89 82 66 0
-0.0510 0.0218 -0.2510 90 83 67 0
-0.0502 0.0218 -0.2510 91 84 68 0
-0.0494 0.0218 -0.2510 93 86 70 0
-0.0485 0.0218 -0.2510 95 88 72 0
-0.0477 0.0218 -0.2510 97 90 74 0
-0.0469 0.0218 -0.2510 94 87 71 0
-0.0460 0.0218 -0.2510 94 87 71 0
-0.0452 0.0218 -0.2510 93 86 70 0
-0.0443 0.0218 -0.2510 92 85 69 0
-0.0435 0.0218 -0.2510 94 87 71 0
-0.0427 0.0218 -0.2510 91 84 68 0
-0.0407 0.0211 -0.2440 79 72 56 0
-0.0296 0.0157 -0.1810 65 58 42 0
-0.0326 0.0177 -0.2040 64 49 42 0
-0.0309 0.0171 -0.1970 73 60 52 0
-0.0222 0.0126 -0.1450 91 78 70 0
-0.0219 0.0127 -0.1460 93 80 72 0
-0.0214 0.0127 -0.1460 76 63 55 0
-0.0206 0.0125 -0.1440 64 51 43 0
-0.0204 0.0127 -0.1460 56 41 34 0
-0.0202 0.0128 -0.1480 44 27 20 0
-0.0191 0.0124 -0.1430 58 39 33 0
-0.0185 0.0123 -0.1420 96 75 70 0
-0.0180 0.0123 -0.1420 146 121 117 0
-0.0174 0.0122 -0.1410 167 137 135 0
-0.0168 0.0121 -0.1400 164 133 131 0
-0.0163 0.0121 -0.1400 176 140 140 0
-0.0158 0.0120 -0.1390 190 151 152 0
-0.0153 0.0120 -0.1390 188 149 150 0
-0.0148 0.0120 -0.1390 200 156 143 0
-0.0143 0.0120 -0.1380 205 161 148 0
-0.0138 0.0120 -0.1380 212 168 155 0
-0.0133 0.0120 -0.1380 217 173 160 0
-0.0129 0.0120 -0.1380 220 176 163 0
-0.0123 0.0119 -0.1370 224 178 165 0
-0.0119 0.0119 -0.1370 226 180 167 0
-0.0114 0.0119 -0.1370 228 180 166 0
-0.0110 0.0119 -0.1370 230 182 168 0
-0.0105 0.0119 -0.1370 230 182 168 0
-0.0100 0.0118 -0.1360 232 183 169 0
-0.0095 0.0118 -0.1360 233 184 170 0
-0.0091 0.0118 -0.1360 236 187 173 0
-0.0086 0.0118 -0.1360 241 189 176 0
-0.0082 0.0118 -0.1360 244 192 179 0
-0.0077 0.0118 -0.1360 245 193 180 0
-0.0073 0.0118 -0.1360 255 197 183 0
-0.0068 0.0117 -0.1350 255 197 183 0
-0.0063 0.0117 -0.1350 255 197 183 0
-0.0059 0.0117 -0.1350 254 198 183 0
-0.0054 0.0117 -0.1350 255 199 184 0
-0.0050 0.0117 -0.1350 255 199 184 0
-0.0045 0.0117 -0.1350 255 200 185 0
-0.0041 0.0117 -0.1350 254 201 185 0
-0.0036 0.0117 -0.1350 255 203 187 0
-0.0032 0.0117 -0.1350 255 203 187 0
-0.0027 0.0117 -0.1350 255 204 187 0
-0.0023 0.0117 -0.1350 255 204 187 0
-0.0018 0.0117 -0.1350 255 204 187 0
-0.0014 0.0117 -0.1350 255 204 187 0
-0.0009 0.0117 -0.1350 255 204 187 0
-0.0005 0.0117 -0.1350 255 204 187 0
0.0000 0.0117 -0.1350 252 206 191 0
0.0005 0.0117 -0.1350 253 205 191 0
0.0009 0.0117 -0.1350 255 207 193 0
0.0014 0.0117 -0.1350 255 208 194 0
0.0018 0.0117 -0.1350 255 209 195 0
0.0023 0.0117 -0.1350 255 208 195 0
0.0027 0.0117 -0.1350 255 208 195 0
0.0032 0.0117 -0.1350 255 207 194 0
0.0036 0.0117 -0.1350 255 205 192 0
0.0041 0.0117 -0.1350 255 206 192 0
0.0045 0.0117 -0.1350 254 206 192 0
0.0050 0.0117 -0.1350 254 208 193 0
0.0054 0.0117 -0.1350 253 210 194 0
0.0059 0.0117 -0.1350 254 212 196 0
0.0063 0.0117 -0.1350 254 215 198 0
0.0068 0.0118 -0.1360 255 216 199 0
0.0073 0.0118 -0.1360 255 212 197 0
0.0077 0.0118 -0.1360 255 212 197 0
0.0082 0.0118 -0.1360 255 213 197 0
0.0086 0.0118 -0.1360 255 213 196 0
0.0091 0.0118 -0.1360 255 214 196 0
0.0095 0.0118 -0.1360 253 215 196 0
0.0100 0.0119 -0.1370 253 215 196 0
0.0105 0.0119 -0.1370 252 216 194 0
0.0110 0.0119 -0.1370 252 216 194 0
0.0114 0.0119 -0.1370 254 216 195 0
0.0119 0.0119 -0.1370 255 215 193 0
0.0124 0.0120 -0.1380 255 214 192 0
0.0129 0.0120 -0.1380 255 213 191 0
0.0133 0.0120 -0.1380 254 209 188 0
0.0138 0.0120 -0.1380 253 206 186 0
0.0144 0.0120 -0.1390 251 204 184 0
0.0148 0.0120 -0.1390 255 199 170 0
0.0153 0.0120 -0.1390 255 195 166 0
0.0159 0.0121 -0.1400 252 190 165 0
0.0163 0.0121 -0.1400 249 188 167 0
0.0169 0.0122 -0.1410 255 194 176 0
0.0175 0.0123 -0.1420 240 181 167 0
0.0181 0.0124 -0.1430 199 142 131 0
0.0187 0.0125 -0.1440 117 64 56 0
0.0196 0.0127 -0.1470 115 66 61 0
0.0198 0.0126 -0.1450 134 91 85 0
0.0204 0.0127 -0.1460 126 89 81 0
0.0212 0.0128 -0.1480 104 74 64 0
0.0298 0.0176 -0.2030 85 61 49 0
0.0375 0.0217 -0.2500 60 41 27 0
0.0363 0.0205 -0.2370 64 48 33 0
0.0288 0.0159 -0.1840 105 92 75 0
0.0378 0.0205 -0.2360 136 114 103 0
0.0407 0.0216 -0.2490 122 100 89 0
0.0415 0.0216 -0.2490 74 52 41 0
0.0423 0.0216 -0.2490 61 39 28 0
0.0432 0.0216 -0.2490 111 89 78 0
0.0440 0.0216 -0.2490 132 110 99 0
0.0448 0.0216 -0.2490 94 72 61 0
0.0458 0.0217 -0.2500 60 38 27 0
0.0467 0.0217 -0.2500 64 42 31 0
0.0473 0.0216 -0.2490 122 100 89 0
0.0481 0.0216 -0.2490 143 121 110 0
0.0492 0.0217 -0.2500 94 72 61 0
0.0500 0.0217 -0.2500 49 27 16 0
0.0508 0.0217 -0.2500 67 45 34 0
0.0517 0.0217 -0.2500 118 96 85 0
0.0525 0.0217 -0.2500 151 129 118 0
0.0533 0.0217 -0.2500 77 69 58 0
0.0544 0.0218 -0.2510 68 60 49 0
0.0554 0.0218 -0.2520 60 52 41 0
0.0563 0.0218 -0.2520 60 52 41 0
0.0571 0.0218 -0.2520 67 59 48 0
0.0580 0.0218 -0.2520 75 67 56 0
0.0588 0.0218 -0.2520 79 71 60 0
0.0596 0.0218 -0.2520 79 71 60 0
0.0607 0.0219 -0.2530 78 70 59 0
0.0616 0.0219 -0.2530 78 70 59 0
0.0624 0.0219 -0.2530 78 70 59 0
0.0633 0.0219 -0.2530 78 70 59 0
0.0641 0.0219 -0.2530 78 70 59 0
0.0649 0.0219 -0.2530 78 70 59 0
0.0658 0.0219 -0.2530 78 70 59 0
0.0666 0.0219 -0.2530 78 70 59 0
0.0675 0.0219 -0.2530 78 71 53 0
0.0683 0.0219 -0.2530 78 71 53 0
0.0692 0.0219 -0.2530 75 68 52 0
0.0703 0.0220 -0.2540 78 71 55 0
0.0711 0.0220 -0.2540 78 70 57 0
0.0720 0.0220 -0.2540 63 55 42 0
0.0725 0.0219 -0.2530 62 54 43 0
0.0731 0.0218 -0.2520 81 72 63 0
0.0739 0.0218 -0.2520 89 80 73 0
0.0748 0.0218 -0.2520 76 67 62 0
0.0762 0.0220 -0.2540 69 60 55 0
0.0767 0.0219 -0.2530 74 64 62 0
0.0779 0.0220 -0.2540 75 65 64 0
0.0787 0.0220 -0.2540 74 64 63 0
0.0796 0.0220 -0.2540 86 76 75 0
0.0801 0.0219 -0.2530 104 94 95 0
0.0810 0.0219 -0.2530 112 104 83 0
0.0815 0.0218 -0.2520 113 102 82 0
0.0823 0.0218 -0.2520 112 101 83 0
0.0828 0.0218 -0.2510 112 99 83 0
0.0837 0.0218 -0.2510 115 97 85 0
0.0842 0.0217 -0.2500 120 100 89 0
0.0850 0.0217 -0.2500 129 107 96 0
0.0858 0.0217 -0.2500 137 110 99 0
0.0863 0.0216 -0.2490 132 102 91 0
0.0872 0.0216 -0.2490 139 108 90 0
0.0876 0.0215 -0.2480 143 108 86 0
0.0874 0.0212 -0.2450 138 103 75 0
0.0835 0.0201 -0.2320 151 112 79 0
0.0814 0.0194 -0.2240 187 149 110 0
0.0821 0.0194 -0.2240 207 168 125 0
0.0829 0.0194 -0.2240 196 158 113 0
0.0836 0.0194 -0.2240 204 173 116 0
0.0844 0.0194 -0.2240 245 214 159 0
0.0851 0.0194 -0.2240 241 210 156 0
0.0859 0.0194 -0.2240 230 200 148 0
0.0866 0.0194 -0.2240 219 188 141 0
0.0874 0.0194 -0.2240 178 150 103 0
0.0881 0.0194 -0.2240 203 176 133 0
0.0896 0.0196 -0.2260 168 142 105 0
0.0948 0.0205 -0.2370 147 121 88 0
0.0980 0.0211 -0.2430 148 123 93 0
0.0984 0.0210 -0.2420 151 127 101 0
0.0992 0.0210 -0.2420 153 131 108 0
0.1000 0.0210 -0.2420 156 134 113 0
0.1004 0.0209 -0.2410 156 135 118 0
0.1012 0.0209 -0.2410 156 135 118 0
0.1020 0.0209 -0.2410 155 133 119 0
0.1028 0.0209 -0.2410 169 142 123 0
0.1032 0.0208 -0.2400 172 145 126 0
0.1040 0.0208 -0.2400 174 147 126 0
0.1048 0.0208 -0.2400 175 148 127 0
0.1052 0.0207 -0.2390 180 153 132 0
0.1060 0.0207 -0.2390 189 162 141 0
0.1068 0.0207 -0.2390 196 168 147 0
0.1076 0.0207 -0.2390 197 169 148 0
0.1079 0.0206 -0.2380 195 167 146 0
0.1087 0.0206 -0.2380 191 163 142 0
0.1095 0.0206 -0.2380 184 156 135 0
0.1103 0.0206 -0.2380 181 153 132 0
0.1106 0.0205 -0.2370 181 153 132 0
0.1114 0.0205 -0.2370 183 155 134 0
0.1122 0.0205 -0.2370 186 158 137 0
0.1130 0.0205 -0.2370 187 159 138 0
0.1133 0.0205 -0.2360 195 163 140 0
0.1141 0.0205 -0.2360 198 166 143 0
0.1149 0.0205 -0.2360 202 170 147 0
0.1156 0.0205 -0.2360 204 172 149 0
0.1159 0.0204 -0.2350 205 173 150 0
0.1167 0.0204 -0.2350 205 173 150 0
0.1175 0.0204 -0.2350 208 173 151 0
0.1183 0.0204 -0.2350 210 175 153 0
0.1191 0.0204 -0.2350 218 183 161 0
0.1193 0.0203 -0.2340 223 187 165 0
0.1201 0.0203 -0.2340 219 183 161 0
0.1209 0.0203 -0.2340 219 183 161 0
0.1217 0.0203 -0.2340 223 187 165 0
0.1219 0.0202 -0.2330 218 180 159 0
0.1227 0.0202 -0.2330 215 177 156 0
0.1235 0.0202 -0.2330 225 187 166 0
-0.1152 0.0180 -0.2160 164 153 149 0
-0.1150 0.0181 -0.2170 166 155 151 0
-0.1143 0.0181 -0.2170 170 159 155 0
-0.1136 0.0181 -0.2170 174 163 159 0
-0.1128 0.0181 -0.2170 177 166 162 0
-0.1121 0.0181 -0.2170 179 168 164 0
-0.1114 0.0181 -0.2170 181 170 166 0
-0.1112 0.0182 -0.2180 182 171 167 0
-0.1105 0.0182 -0.2180 188 177 173 0
-0.1097 0.0182 -0.2180 167 156 152 0
-0.1090 0.0182 -0.2180 178 167 163 0
-0.1083 0.0182 -0.2180 153 142 138 0
-0.1075 0.0182 -0.2180 102 91 87 0
-0.1073 0.0182 -0.2190 90 79 75 0
-0.1066 0.0182 -0.2190 88 77 73 0
-0.1058 0.0182 -0.2190 81 70 66 0
-0.1051 0.0182 -0.2190 113 82 87 0
-0.1044 0.0182 -0.2190 104 73 78 0
-0.1041 0.0183 -0.2200 113 87 90 0
-0.1034 0.0183 -0.2200 146 121 124 0
-0.1027 0.0183 -0.2200 163 143 144 0
-0.1019 0.0183 -0.2200 150 134 134 0
-0.1017 0.0184 -0.2210 131 120 116 0
-0.1009 0.0184 -0.2210 123 114 109 0
-0.1002 0.0184 -0.2210 103 96 90 0
-0.0994 0.0184 -0.2210 90 83 77 0
-0.0992 0.0185 -0.2220 72 65 57 0
-0.0984 0.0185 -0.2220 59 52 44 0
-0.0977 0.0185 -0.2220 59 50 43 0
-0.0969 0.0185 -0.2220 65 54 48 0
-0.0966 0.0186 -0.2230 73 62 56 0
-0.0959 0.0186 -0.2230 79 66 60 0
-0.0951 0.0186 -0.2230 80 61 54 0
-0.0944 0.0186 -0.2230 87 68 62 0
-0.0937 0.0186 -0.2230 85 66 62 0
-0.0925 0.0185 -0.2220 81 63 61 0
-0.0918 0.0185 -0.2220 98 79 81 0
-0.0910 0.0185 -0.2220 123 107 110 0
-0.0903 0.0185 -0.2220 129 112 118 0
-0.0895 0.0185 -0.2220 118 101 109 0
-0.0888 0.0185 -0.2220 116 99 105 0
-0.0881 0.0185 -0.2220 159 143 146 0
-0.0881 0.0187 -0.2240 152 137 134 0
-0.0885 0.0189 -0.2270 99 82 75 0
-0.0878 0.0189 -0.2270 96 80 67 0
-0.0870 0.0189 -0.2270 96 79 63 0
-0.0863 0.0189 -0.2270 116 99 81 0
-0.0855 0.0189 -0.2270 116 99 79 0
-0.0851 0.0190 -0.2280 128 101 90 0
-0.0847 0.0191 -0.2290 135 108 97 0
-0.0840 0.0191 -0.2290 134 107 96 0
-0.0832 0.0191 -0.2290 132 105 94 0
-0.0828 0.0192 -0.2300 136 109 98 0
-0.0820 0.0192 -0.2300 131 108 94 0
-0.0813 0.0192 -0.2300 125 103 89 0
-0.0809 0.0192 -0.2310 128 111 95 0
-0.0801 0.0192 -0.2310 115 104 86 0
-0.0793 0.0192 -0.2310 86 81 59 0
-0.0785 0.0192 -0.2310 109 113 88 0
-0.0781 0.0193 -0.2320 168 181 153 0
-0.0773 0.0193 -0.2320 164 183 153 0
-0.0769 0.0194 -0.2330 165 192 157 0
-0.0761 0.0194 -0.2330 172 204 167 0
-0.0757 0.0195 -0.2340 128 162 125 0
-0.0749 0.0195 -0.2340 121 108 74 0
-0.0744 0.0196 -0.2350 133 109 81 0
-0.0736 0.0196 -0.2350 138 101 83 0
-0.0732 0.0197 -0.2360 153 109 100 0
-0.0724 0.0197 -0.2360 139 104 100 0
-0.0716 0.0197 -0.2360 107 93 90 0
-0.0711 0.0198 -0.2370 101 114 107 0
-0.0703 0.0198 -0.2370 96 127 119 0
-0.0698 0.0198 -0.2380 103 134 128 0
-0.0690 0.0198 -0.2380 116 130 130 0
-0.0685 0.0199 -0.2390 121 110 114 0
-0.0680 0.0200 -0.2400 124 93 99 0
-0.0672 0.0200 -0.2400 125 86 89 0
-0.0664 0.0200 -0.2400 106 77 73 0
-0.0659 0.0201 -0.2410 119 103 90 0
-0.0653 0.0202 -0.2420 162 157 137 0
-0.0645 0.0202 -0.2420 175 160 141 0
-0.0640 0.0203 -0.2430 122 107 88 0
-0.0634 0.0203 -0.2440 101 86 67 0
-0.0626 0.0203 -0.2440 108 92 76 0
-0.0621 0.0204 -0.2450 99 83 67 0
-0.0615 0.0205 -0.2460 91 75 59 0
-0.0607 0.0205 -0.2460 92 79 62 0
-0.0601 0.0206 -0.2470 87 74 58 0
-0.0595 0.0207 -0.2480 83 70 54 0
-0.0587 0.0207 -0.2480 81 69 53 0
-0.0581 0.0207 -0.2490 80 68 54 0
-0.0575 0.0208 -0.2500 79 67 53 0
-0.0569 0.0209 -0.2510 79 67 53 0
-0.0561 0.0209 -0.2510 80 71 56 0
-0.0554 0.0210 -0.2520 86 77 62 0
-0.0546 0.0210 -0.2520 90 81 66 0
-0.0538 0.0210 -0.2520 90 83 67 0
-0.0529 0.0210 -0.2520 90 83 67 0
-0.0521 0.0210 -0.2520 89 82 66 0
-0.0510 0.0209 -0.2510 90 83 67 0
-0.0502 0.0209 -0.2510 91 84 68 0
-0.0494 0.0209 -0.2510 93 86 70 0
-0.0485 0.0209 -0.2510 96 89 73 0
-0.0477 0.0209 -0.2510 97 90 74 0
-0.0469 0.0209 -0.2510 98 91 75 0
-0.0460 0.0209 -0.2510 96 89 73 0
-0.0450 0.0208 -0.2500 90 83 67 0
-0.0442 0.0208 -0.2500 83 76 60 0
-0.0433 0.0208 -0.2500 76 69 53 0
-0.0423 0.0207 -0.2490 65 58 42 0
-0.0387 0.0193 -0.2320 46 39 23 0
-0.0268 0.0137 -0.1640 28 21 5 0
-0.0306 0.0159 -0.1910 33 20 12 0
-0.0301 0.0160 -0.1920 54 41 33 0
-0.0222 0.0121 -0.1450 80 67 59 0
-0.0220 0.0122 -0.1470 83 70 62 0
-0.0216 0.0122 -0.1470 68 55 47 0
-0.0209 0.0122 -0.1460 63 50 42 0
-0.0207 0.0123 -0.1480 61 46 39 0
-0.0202 0.0123 -0.1480 50 33 26 0
-0.0191 0.0119 -0.1430 65 46 40 0
-0.0185 0.0118 -0.1420 109 88 83 0
-0.0180 0.0118 -0.1420 158 133 129 0
-0.0174 0.0117 -0.1410 170 140 138 0
-0.0168 0.0117 -0.1400 162 131 129 0
-0.0163 0.0117 -0.1400 177 141 141 0
-0.0158 0.0116 -0.1390 193 154 155 0
-0.0153 0.0116 -0.1390 188 149 150 0
-0.0148 0.0116 -0.1390 201 157 144 0
-0.0143 0.0115 -0.1380 206 162 149 0
-0.0138 0.0115 -0.1380 213 169 156 0
-0.0133 0.0115 -0.1380 218 174 161 0
-0.0129 0.0115 -0.1380 221 177 164 0
-0.0123 0.0114 -0.1370 224 178 165 0
-0.0119 0.0114 -0.1370 226 180 167 0
-0.0114 0.0114 -0.1370 228 180 166 0
-0.0110 0.0114 -0.1370 229 181 167 0
-0.0104 0.0113 -0.1360 229 181 167 0
-0.0100 0.0113 -0.1360 231 182 168 0
-0.0095 0.0113 -0.1360 232 183 169 0
-0.0091 0.0113 -0.1360 234 185 171 0
-0.0086 0.0113 -0.1360 239 187 174 0
-0.0082 0.0113 -0.1360 242 190 177 0
-0.0077 0.0113 -0.1360 244 192 179 0
-0.0072 0.0112 -0.1350 254 196 182 0
-0.0068 0.0112 -0.1350 254 196 182 0
-0.0063 0.0112 -0.1350 254 196 182 0
-0.0059 0.0112 -0.1350 254 198 183 0
-0.0054 0.0112 -0.1350 254 198 183 0
-0.0050 0.0112 -0.1350 254 198 183 0
-0.0045 0.0112 -0.1350 255 199 184 0
-0.0041 0.0112 -0.1350 253 200 184 0
-0.0036 0.0112 -0.1350 255 203 187 0
-0.0032 0.0112 -0.1350 255 203 187 0
-0.0027 0.0112 -0.1350 255 204 187 0
-0.0023 0.0112 -0.1350 255 204 187 0
-0.0018 0.0112 -0.1350 255 204 187 0
-0.0014 0.0112 -0.1350 255 204 187 0
-0.0009 0.0112 -0.1350 255 204 187 0
-0.0005 0.0112 -0.1350 255 204 187 0
0.0000 0.0112 -0.1350 251 205 190 0
0.0005 0.0112 -0.1350 253 205 191 0
0.0009 0.0112 -0.1350 255 207 193 0
0.0014 0.0112 -0.1350 255 208 194 0
0.0018 0.0112 -0.1350 255 210 196 0
0.0023 0.0112 -0.1350 255 209 196 0
0.0027 0.0112 -0.1350 255 209 196 0
0.0032 0.0112 -0.1350 255 209 196 0
0.0036 0.0112 -0.1350 255 206 193 0
0.0041 0.0112 -0.1350 255 207 193 0
0.0045 0.0112 -0.1350 255 207 193 0
0.0050 0.0112 -0.1350 255 209 194 0
0.0054 0.0112 -0.1350 254 211 195 0
0.0059 0.0112 -0.1350 254 212 196 0
0.0063 0.0112 -0.1350 254 215 198 0
0.0068 0.0112 -0.1350 255 216 199 0
0.0073 0.0113 -0.1360 255 212 197 0
0.0077 0.0113 -0.1360 255 212 197 0
0.0082 0.0113 -0.1360 255 213 197 0
0.0086 0.0113 -0.1360 255 213 196 0
0.0091 0.0113 -0.1360 255 214 196 0
0.0095 0.0113 -0.1360 253 215 196 0
0.0100 0.0113 -0.1360 253 215 196 0
0.0105 0.0114 -0.1370 252 216 194 0
0.0110 0.0114 -0.1370 252 216 194 0
0.0114 0.0114 -0.1370 254 216 195 0
0.0119 0.0114 -0.1370 255 215 193 0
0.0124 0.0115 -0.1380 255 214 192 0
0.0129 0.0115 -0.1380 255 213 191 0
0.0133 0.0115 -0.1380 255 210 189 0
0.0138 0.0115 -0.1380 253 206 186 0
0.0144 0.0116 -0.1390 252 205 185 0
0.0148 0.0116 -0.1390 255 201 169 0
0.0153 0.0116 -0.1390 255 196 166 0
0.0159 0.0117 -0.1400 253 193 165 0
0.0163 0.0117 -0.1400 250 190 166 0
0.0169 0.0117 -0.1410 255 196 178 0
0.0175 0.0118 -0.1420 241 182 168 0
0.0181 0.0119 -0.1430 225 167 156 0
0.0187 0.0120 -0.1440 126 71 64 0
0.0195 0.0122 -0.1460 101 50 46 0
0.0198 0.0121 -0.1450 142 97 92 0
0.0202 0.0120 -0.1440 131 92 85 0
0.0208 0.0121 -0.1450 94 64 54 0
0.0283 0.0161 -0.1930 80 56 44 0
0.0343 0.0191 -0.2290 57 38 24 0
0.0316 0.0172 -0.2060 53 37 21 0
0.0280 0.0149 -0.1790 90 77 60 0
0.0347 0.0181 -0.2170 147 125 114 0
0.0407 0.0207 -0.2490 126 104 93 0
0.0415 0.0207 -0.2490 67 45 34 0
0.0423 0.0207 -0.2490 54 32 21 0
0.0432 0.0207 -0.2490 122 100 89 0
0.0440 0.0207 -0.2490 155 133 122 0
0.0448 0.0207 -0.2490 106 84 73 0
0.0458 0.0208 -0.2500 56 34 23 0
0.0467 0.0208 -0.2500 78 56 45 0
0.0473 0.0207 -0.2490 140 118 107 0
0.0481 0.0207 -0.2490 157 135 124 0
0.0492 0.0208 -0.2500 97 75 64 0
0.0500 0.0208 -0.2500 49 27 16 0
0.0508 0.0208 -0.2500 75 53 42 0
0.0517 0.0208 -0.2500 131 109 98 0
0.0525 0.0208 -0.2500 162 140 129 0
0.0533 0.0208 -0.2500 74 66 55 0
0.0544 0.0209 -0.2510 60 52 41 0
0.0552 0.0209 -0.2510 46 38 27 0
0.0561 0.0209 -0.2510 44 36 25 0
0.0569 0.0209 -0.2510 54 46 35 0
0.0580 0.0210 -0.2520 67 59 48 0
0.0588 0.0210 -0.2520 74 66 55 0
0.0596 0.0210 -0.2520 76 68 57 0
0.0605 0.0210 -0.2520 78 70 59 0
0.0616 0.0211 -0.2530 78 70 59 0
0.0624 0.0211 -0.2530 78 70 59 0
0.0633 0.0211 -0.2530 78 70 59 0
0.0641 0.0211 -0.2530 78 70 59 0
0.0649 0.0211 -0.2530 78 70 59 0
0.0658 0.0211 -0.2530 78 70 59 0
0.0666 0.0211 -0.2530 78 70 59 0
0.0675 0.0211 -0.2530 78 71 53 0
0.0683 0.0211 -0.2530 78 71 53 0
0.0692 0.0211 -0.2530 75 68 52 0
0.0703 0.0212 -0.2540 78 71 55 0
0.0711 0.0212 -0.2540 77 69 56 0
0.0720 0.0212 -0.2540 63 55 42 0
0.0725 0.0211 -0.2530 62 54 43 0
0.0731 0.0210 -0.2520 81 72 63 0
0.0739 0.0210 -0.2520 90 81 74 0
0.0748 0.0210 -0.2520 75 66 61 0
0.0762 0.0212 -0.2540 69 60 55 0
0.0767 0.0211 -0.2530 76 66 64 0
0.0779 0.0212 -0.2540 81 71 70 0
0.0787 0.0212 -0.2540 79 69 68 0
0.0796 0.0212 -0.2540 85 75 76 0
0.0801 0.0211 -0.2530 98 88 89 0
0.0810 0.0211 -0.2530 113 101 77 0
0.0815 0.0210 -0.2520 116 104 82 0
0.0823 0.0210 -0.2520 121 106 85 0
0.0828 0.0209 -0.2510 123 106 88 0
0.0837 0.0209 -0.2510 123 104 89 0
0.0842 0.0208 -0.2500 124 102 89 0
0.0850 0.0208 -0.2500 127 101 88 0
0.0855 0.0207 -0.2490 130 101 87 0
0.0863 0.0207 -0.2490 135 102 87 0
0.0872 0.0207 -0.2490 140 105 85 0
0.0873 0.0206 -0.2470 137 100 74 0
0.0831 0.0194 -0.2330 139 100 69 0
0.0806 0.0187 -0.2240 185 143 105 0
0.0814 0.0187 -0.2240 253 210 167 0
0.0821 0.0187 -0.2240 255 218 170 0
0.0829 0.0187 -0.2240 214 170 121 0
0.0836 0.0187 -0.2240 212 182 120 0
0.0844 0.0187 -0.2240 255 230 170 0
0.0851 0.0187 -0.2240 255 234 176 0
0.0859 0.0187 -0.2240 255 243 187 0
0.0866 0.0187 -0.2240 237 210 157 0
0.0874 0.0187 -0.2240 159 133 84 0
0.0881 0.0187 -0.2240 218 191 146 0
0.0889 0.0187 -0.2240 222 197 156 0
0.0904 0.0188 -0.2260 145 121 85 0
0.0952 0.0197 -0.2360 147 124 92 0
0.0984 0.0202 -0.2420 150 129 100 0
0.0992 0.0202 -0.2420 155 135 110 0
0.1000 0.0202 -0.2420 158 140 118 0
0.1004 0.0201 -0.2410 162 143 126 0
0.1012 0.0201 -0.2410 165 146 129 0
0.1020 0.0201 -0.2410 165 148 132 0
0.1028 0.0201 -0.2410 177 149 128 0
0.1032 0.0200 -0.2400 179 151 130 0
0.1040 0.0200 -0.2400 179 151 129 0
0.1048 0.0200 -0.2400 176 148 126 0
0.1052 0.0199 -0.2390 179 151 129 0
0.1060 0.0199 -0.2390 185 157 135 0
0.1068 0.0199 -0.2390 189 161 139 0
0.1076 0.0199 -0.2390 190 159 138 0
0.1079 0.0198 -0.2380 199 168 147 0
0.1087 0.0198 -0.2380 195 164 143 0
0.1095 0.0198 -0.2380 189 158 137 0
0.1103 0.0198 -0.2380 186 155 134 0
0.1106 0.0198 -0.2370 186 155 134 0
0.1114 0.0198 -0.2370 189 158 137 0
0.1122 0.0198 -0.2370 191 160 139 0
0.1130 0.0198 -0.2370 192 161 140 0
0.1133 0.0197 -0.2360 196 164 141 0
0.1141 0.0197 -0.2360 199 167 144 0
0.1149 0.0197 -0.2360 203 171 148 0
0.1156 0.0197 -0.2360 205 173 150 0
0.1159 0.0196 -0.2350 205 173 150 0
0.1167 0.0196 -0.2350 205 173 150 0
0.1175 0.0196 -0.2350 208 173 151 0
0.1183 0.0196 -0.2350 209 174 152 0
0.1186 0.0195 -0.2340 217 182 160 0
0.1193 0.0195 -0.2340 222 186 164 0
0.1201 0.0195 -0.2340 220 184 162 0
0.1209 0.0195 -0.2340 221 185 163 0
0.1217 0.0195 -0.2340 226 190 168 0
0.1219 0.0194 -0.2330 222 184 163 0
0.1227 0.0194 -0.2330 219 181 160 0
0.1235 0.0194 -0.2330 229 191 170 0
-0.1157 0.0174 -0.2170 97 94 79 0
-0.1150 0.0174 -0.2170 109 103 89 0
-0.1143 0.0174 -0.2170 119 107 95 0
-0.1136 0.0174 -0.2170 124 107 97 0
-0.1128 0.0174 -0.2170 131 113 103 0
-0.1121 0.0174 -0.2170 146 126 119 0
-0.1114 0.0174 -0.2170 154 137 129 0
-0.1112 0.0174 -0.2180 153 140 131 0
-0.1105 0.0174 -0.2180 160 154 142 0
-0.1097 0.0174 -0.2180 166 164 152 0
-0.1090 0.0174 -0.2180 162 162 150 0
-0.1083 0.0174 -0.2180 138 138 126 0
-0.1075 0.0174 -0.2180 109 107 95 0
-0.1073 0.0175 -0.2190 92 83 76 0
-0.1066 0.0175 -0.2190 88 75 69 0
-0.1058 0.0175 -0.2190 89 74 69 0
-0.1051 0.0175 -0.2190 116 83 90 0
-0.1044 0.0175 -0.2190 115 84 90 0
-0.1041 0.0176 -0.2200 96 71 74 0
-0.1034 0.0176 -0.2200 153 135 135 0
-0.1027 0.0176 -0.2200 164 150 149 0
-0.1019 0.0176 -0.2200 152 143 138 0
-0.1017 0.0177 -0.2210 153 142 138 0
-0.1009 0.0177 -0.2210 150 136 133 0
-0.1002 0.0177 -0.2210 160 142 142 0
-0.0994 0.0177 -0.2210 139 119 120 0
-0.0992 0.0178 -0.2220 134 114 116 0
-0.0984 0.0178 -0.2220 144 123 128 0
-0.0977 0.0178 -0.2220 145 128 134 0
-0.0969 0.0178 -0.2220 138 127 133 0
-0.0966 0.0178 -0.2230 121 116 120 0
-0.0959 0.0178 -0.2230 99 97 102 0
-0.0951 0.0178 -0.2230 90 71 64 0
-0.0944 0.0178 -0.2230 98 79 72 0
-0.0937 0.0178 -0.2230 71 54 47 0
-0.0925 0.0178 -0.2220 72 58 55 0
-0.0918 0.0178 -0.2220 102 92 90 0
-0.0910 0.0178 -0.2220 115 107 105 0
-0.0903 0.0178 -0.2220 122 116 116 0
-0.0895 0.0178 -0.2220 123 117 117 0
-0.0888 0.0178 -0.2220 109 103 103 0
-0.0881 0.0178 -0.2220 163 153 152 0
-0.0881 0.0179 -0.2240 148 134 131 0
-0.0881 0.0181 -0.2260 113 95 91 0
-0.0874 0.0181 -0.2260 105 82 76 0
-0.0866 0.0181 -0.2260 99 72 63 0
-0.0859 0.0181 -0.2260 112 82 72 0
